ply
format ascii 1.0
comment Created by Open3D
element vertex 1986
property double x
property double y
property double z
end_header
-44.4745 60.4034 464.75
-42.8086 61.7002 464.848
-98.2569 73.6253 465.33
-42.7121 46.9282 465.482
-65.5351 27.1405 466.348
-87.163 32.2866 466.859
-157.79 64.6257 429.873
-160.851 52.9809 425.898
-140.126 64.2499 465.95
-148.636 59.9756 449.996
-69.6216 60.3306 465.733
-69.9533 49.3398 466.044
-61.868 47.9732 465.543
-27.2428 51.6656 466.708
-28.1025 52.126 466.17
-23.5746 38.1429 474.081
-26.8624 42.3856 467.309
-25.0947 38.5412 468.78
-23.4074 40.4125 473.974
-23.605 38.5044 475.374
-27.672 40.5849 466.909
-23.4723 44.8969 474.695
-50.4497 47.0893 465.334
-23.6266 50.4174 473.063
-26.1584 44.4187 467.617
-68.3679 49.9487 465.958
-66.6396 48.4853 465.771
-64.3034 54.0173 465.616
-63.8124 51.4656 465.415
-67.8631 54.7705 465.943
-68.5953 56.3925 465.957
-67.8105 44.5345 465.912
-57.5722 41.0143 465.865
-72.163 46.2912 466.141
-80.6686 51.5567 466.065
-84.4938 42.923 466.403
-84.2574 43.7845 466.381
-92.8518 49.0446 466.21
-95.6743 58.2367 465.91
-118.539 60.5627 466.773
-84.039 56.7471 465.866
-75.6654 54.874 465.783
-143.611 64.5856 460.25
-143.119 66.5204 461.1
-144.144 62.5644 459.33
-153.43 66.5519 438.679
-160.114 64.0153 425.986
-162.354 62.6454 426.063
-163.019 60.7958 427.95
-161.248 56.7483 426.208
-153.092 53.5754 440.742
-154.392 53.7998 437.978
-153.682 55.1749 439.098
-155.635 54.0161 435.115
-159.375 57.9348 427.455
-155.006 60.442 435.939
-155.971 59.7539 433.488
-143.721 51.2999 461.065
-145.005 54.4623 458.138
-141.248 51.9384 465.647
-142.462 50.4031 463.886
-145.213 50.4538 458.231
-146.355 51.6661 455.63
-146.196 55.1336 455.636
-148.215 53.0707 451.313
-151.65 52.3901 443.976
-148.712 56.6325 450.161
-149.341 55.2539 448.881
-150.529 55.8854 445.782
-148.252 53.8992 451.198
-147.528 58.8222 452.445
-142.461 62.8082 462.908
-150.389 59.1396 446.136
-148.365 64.6587 450.121
-147.789 63.8355 451.479
-149.568 57.6027 448.08
-149.973 56.3067 447.226
-153.387 50.1917 440.607
-24.6924 46.3746 468.792
-126.777 58.2401 467.003
-126.845 60.3201 466.924
-158.866 66.8169 427.369
-162.198 55.7711 426.345
-140.303 56.2675 465.879
-149.927 34.1945 449.456
-98.0209 58.5716 465.934
-36.8037 49.7832 465.103
-34.7876 52.3692 465.085
-40.6175 55.2325 465.229
-54.1995 43.7356 465.613
-55.037 46.3676 465.432
-54.3109 47.9383 465.276
-70.4404 56.0253 465.964
-71.8306 56.7567 465.883
-89.5972 60.4751 465.568
-89.1015 60.3472 465.574
-92.941 58.4089 465.684
-92.6389 51.304 466.023
-92.8265 52.5175 465.972
-114.223 51.0811 466.947
-132.681 56.7605 467.244
-133 55.2125 467.257
-113.57 57.8518 466.798
-114.761 57.1182 466.871
-128.298 63.878 466.829
-102.906 60.0955 466.15
-125.039 62.9503 466.81
-150.584 53.1785 446.252
-149.311 46.0285 449.665
-78.6679 41.1543 466.252
-149.922 62.1353 447.054
-154.375 50.2582 438.35
-95.7383 52.3571 466.159
-98.4594 51.9253 466.32
-113.401 48.1135 466.998
-112.524 49.793 466.851
-75.3487 53.2801 465.858
-81.1708 46.3521 466.178
-71.4042 58.3935 465.862
-60.6161 46.328 465.611
-43.3931 41.3832 465.332
-40.2502 41.7973 465.331
-28.3625 48.0287 466.1
-24.3587 51.7927 469.521
-37.3374 53.292 465.139
-64.75 46.6055 465.672
-44.471 47.1675 465.429
-55.9851 54.4951 465.189
-52.8864 54.7663 465.129
-56.6875 48.4291 465.245
-54.3907 52.5511 465.173
-51.269 52.093 465.113
-54.5148 49.5266 465.192
-44.2337 49.9044 465.383
-46.0402 52.4464 465.142
-32.4201 50.2913 465.046
-26.3083 50.7207 467.254
-24.2321 47.4312 469.96
-24.0361 48.3853 470.593
-23.9868 51.1356 476.937
-41.1237 52.4837 465.28
-23.4895 49.595 474.412
-23.6508 43.3061 471.462
-23.5887 42.3764 474.278
-23.7424 38.3109 472.137
-36.8404 45.8499 465.153
-23.8821 46.8809 470.91
-58.1165 56.5233 465.116
-70.5766 52.5418 465.909
-70.8135 54.565 465.934
-32.0041 42.385 465.19
-60.8039 50.3904 465.448
-52.3313 40.6943 465.707
-50.6649 38.559 465.792
-64.481 42.4124 465.767
-140.715 49.9153 466.086
-71.8981 53.1655 465.909
-84.7925 48.5226 466.177
-73.906 46.7561 466.164
-116.582 48.1844 467.057
-90.0819 55.2588 465.813
-88.6256 53.8042 465.832
-88.3847 52.5318 465.874
-86.8942 49.0688 466.033
-89.9071 46.4287 466.256
-90.537 48.0882 466.147
-115.504 59.6841 466.743
-124.548 52.3 467.187
-128.508 53.6609 467.248
-125.509 52.451 467.207
-125.095 57.8168 466.965
-123.55 53.4759 467.102
-126.403 56.1573 467.076
-109.495 56.4833 466.476
-112.579 56.3081 466.784
-112.02 52.4051 466.762
-106.7 52.4083 466.597
-109.036 51.0876 466.694
-151.077 12.7652 452.76
-138.521 48.5868 467.261
-136.708 62.5944 466.933
-137.869 56.8777 466.718
-160.399 39.393 426.487
-122.248 63.2931 466.495
-110.323 58.5279 466.525
-114.572 62.977 466.501
-113.228 60.7355 466.575
-141.696 63.4839 464.256
-82.3356 56.4288 465.919
-73.7873 55.7516 465.829
-76.8199 56.2171 465.941
-150.898 50.3297 445.361
-162.873 67.8294 427.251
-156.041 65.9243 433.549
-162.337 59.2963 426.744
-162.785 58.2724 428.765
-155.489 50.4121 435.817
-158.303 56.3112 429.43
-155.853 58.4542 433.97
-155.244 57.1797 435.582
-143.756 54.9098 460.701
-143.242 55.7276 461.932
-145.15 60.6615 457.372
-145.935 60.678 455.711
-146.034 63.0197 455.315
-144.921 59.2191 457.985
-140.295 58.2901 466.043
-138.231 63.6704 466.871
-146.745 52.0675 454.822
-143.421 52.4261 461.736
-143.296 54.5477 461.946
-152.229 55.369 443.007
-152.872 56.4111 440.783
-150.314 61.9067 446.381
-151.732 61.5008 443.339
-149.546 61.0417 447.862
-102.081 51.6863 466.449
-102.265 50.8225 466.504
-132.88 59.9569 467.105
-130.361 61.7531 466.992
-135.498 57.4297 466.977
-134.349 52.5876 467.305
-40.5734 45.84 465.372
-44.9392 54.5972 464.862
-42.6363 51.5953 465.213
-32.2045 44.4889 465.204
-36.1608 42.1915 465.388
-37.7968 42.101 465.321
-86.458 58.8192 465.66
-102.708 44.3217 466.641
-97.3009 44.9926 466.627
-88.3947 50.569 465.971
-115.041 47.954 467.057
-115.211 46.5224 467.142
-122.419 48.9989 467.318
-101.734 57.1216 466.228
-126.747 48.3077 467.448
-128.788 46.7619 467.412
-101.9 47.8807 466.551
-47.0005 50.7756 465.224
-46.3189 54.8484 464.868
-48.092 50.6932 465.191
-34.7952 36.4712 465.429
-148.501 38.3275 452.027
-37.8694 40.2964 465.33
-52.7618 39.2361 465.791
-107.141 46.0835 466.961
-112.236 44.0976 467.157
-160.715 50.1913 425.637
-157.776 48.5312 431.324
-143.221 46.608 462.482
-150.135 46.2992 447.926
-147.668 47.6516 453.092
-75.6468 32.2962 466.316
-152.938 32.9444 442.965
-148.995 42.6011 449.975
-162.651 38.0536 426.184
-159.896 37.5809 427.464
-109.292 28.5747 467.482
-111.108 31.9743 467.43
-108.53 30.6703 467.454
-110.529 26.5872 467.517
-102.172 39.9534 466.884
-99.1307 38.0097 467.074
-98.291 37.0079 467.09
-94.5646 39.9124 466.853
-23.6723 33.9807 471.872
-40.5563 30.659 465.611
-40.2713 38.1523 465.41
-34.9601 22.3814 466.031
-78.7918 25.8057 466.621
-86.5385 30.0523 466.938
-83.194 28.6105 466.874
-86.0114 29.4135 466.947
-130.298 34.7377 467.733
-140.931 30.8502 467.088
-124.379 38.3754 467.655
-141.753 33.8821 465.945
-143.424 44.6466 462.369
-141.165 44.1498 465.738
-141.04 41.093 466.311
-127.192 33.8679 467.784
-135.411 34.575 468.031
-126.111 28.3632 467.792
-142.901 34.4675 464.312
-143.506 35.4948 462.956
-145.287 47.8061 458.341
-149.311 33.2755 450.664
-147.624 42.8928 453.482
-143.922 39.6504 461.703
-143.995 37.7601 461.646
-145.603 45.8783 457.782
-147 43.6347 454.967
-147.37 44.4183 454.143
-146.65 41.4454 455.829
-155.444 45.5796 436.279
-163.287 42.6103 427.828
-154.674 42.0153 438.568
-155.598 43.3979 436.351
-153.286 39.3254 441.629
-153.95 42.3215 440.112
-148.037 42.9321 452.569
-149.751 40.4734 448.162
-149.74 44.1923 448.227
-162.346 45.0111 425.857
-158.211 47.0695 430.38
-159.898 42.6837 427.291
-163.355 46.8644 427.472
-163.144 40.7518 426.86
-151.258 36.5963 445.733
-150.706 34.318 447.794
-149.352 35.931 450.443
-155.847 36.4624 436.251
-137.017 27.7444 467.783
-153.834 35.9043 441.178
-107.581 38.4298 467.046
-92.5701 28.1127 467.075
-110.318 40.617 467.167
-102.451 35.142 467.084
-120.496 40.9483 467.504
-114.866 30.3441 467.562
-98.4766 28.4272 467.291
-95.5416 27.7843 467.114
-82.4443 34.3234 466.708
-82.2556 36.0869 466.697
-72.9394 26.0202 466.742
-59.9557 36.2749 466.11
-54.7222 29.9819 465.993
-52.677 32.2655 466.051
-64.1458 40.7816 465.942
-61.8325 27.908 466.17
-64.4449 32.4011 465.85
-65.7863 31.7876 465.961
-68.427 38.2146 465.929
-67.1466 30.5895 466.075
-68.3494 29.0746 466.107
-56.7885 24.4539 466.289
-32.0167 22.26 466.301
-31.0426 22.9208 466.441
-34.7486 28.0867 465.929
-26.3066 30.2905 468.27
-27.3552 27.5612 467.58
-24.2602 27.1353 473.639
-23.7867 31.772 473.832
-23.4875 34.4523 473.306
-24.2357 32.8493 477.079
-126.724 44.2683 467.49
-133.788 45.9223 467.503
-58.8492 21.9369 466.348
-132.712 46.7023 467.467
-71.6059 36.9733 466.155
-122.741 36.446 467.76
-119.815 36.4347 467.533
-108.199 33.8182 467.326
-88.1696 33.3253 466.849
-81.5403 27.6382 466.772
-47.683 36.544 465.861
-71.7066 33.7633 466.161
-59.6944 30.5089 466.064
-118.997 47.8754 467.131
-76.9367 38.4809 466.354
-138.18 36.4804 467.89
-114.025 43.7003 467.229
-112.421 42.754 467.197
-158.475 44.8414 430.183
-108.178 41.821 467.035
-91.3363 29.4051 467.068
-25.439 33.9292 468.728
-61.9636 32.2378 466.04
-60.7242 27.7598 466.075
-24.9087 32.6977 469.398
-118.449 42.5679 467.399
-108.334 40.4547 467.017
-59.9332 38.322 465.966
-23.5049 36.0432 475.197
-27.1458 34.4228 467.545
-28.5338 36.1873 466.679
-40.6926 35.01 465.487
-52.8634 35.2728 465.997
-76.708 42.0635 466.331
-87.067 43.2575 466.336
-93.493 41.4247 466.746
-93.5557 42.3751 466.705
-152.166 48.7989 442.963
-152.709 46.2632 442.17
-146.933 47.5079 454.775
-139.574 46.6294 467.042
-142.847 44.9977 463.538
-156.226 38.9819 435.487
-155.196 39.8097 437.522
-112.506 30.224 467.504
-112.608 28.5203 467.541
-80.7374 40.4525 466.372
-81.6023 39.0262 466.372
-58.0184 24.5184 466.382
-47.5219 30.8206 466.125
-65.1345 36.8243 465.897
-58.4583 27.1666 466.191
-62.6443 27.1508 466.3
-78.6715 32.4789 466.526
-134.72 42.027 467.761
-116.426 34.6846 467.361
-136.033 41.2961 467.738
-138.512 34.4233 467.936
-138.787 32.7419 467.858
-130.622 28.7979 467.843
-141.206 42.6454 465.931
-142.582 37.7868 464.16
-147.19 42.3883 454.601
-128.735 31.7446 467.773
-130.534 31.867 467.734
-144.289 32.4526 461.507
-146.912 36.1818 455.576
-143.665 49.4027 461.501
-157.846 44.8047 431.823
-154.253 44.743 439.539
-157.203 42.01 432.987
-158.193 41.3 430.773
-158.943 48.8935 428.139
-158.753 49.0207 429.155
-159.214 43.2633 428.511
-158.9 45.9165 428.434
-163.515 45.913 428.441
-160.913 39.7737 425.87
-164.478 35.342 428.746
-159.776 34.0512 427.928
-153.356 35.0007 442.242
-153.71 33.2645 441.643
-100.294 32.2055 467.22
-104.807 29.8889 467.394
-94.8354 34.2588 467.055
-101.246 30.5815 467.227
-116.617 36.3446 467.392
-122.412 30.4534 467.708
-123.707 33.8148 467.856
-113.796 33.0354 467.459
-79.8353 26.7431 466.553
-74.6551 27.9353 466.664
-74.177 39.9955 466.312
-73.8185 38.3626 466.211
-76.5008 30.3096 466.447
-83.2371 -36.2876 596.044
-60.8792 25.1108 466.235
-54.4031 24.5527 466.271
-59.969 25.6752 466.204
-45.9927 26.2875 466.235
-67.9589 36.557 465.887
-70.1851 31.4641 466.138
-65.699 34.5864 465.96
-64.0462 27.293 466.432
-63.7762 35.0708 465.936
-54.1977 22.4646 466.437
-52.9017 24.808 466.3
-50.2999 20.9954 466.153
-49.66 22.4935 466.175
-38.1657 32.7096 465.716
-24.3605 33.7805 470.118
-44.2489 27.1632 466.139
-46.6283 32.8786 466.202
-44.3546 29.9048 465.817
-44.461 22.8786 466.107
-29.874 34.6312 466.209
-32.7772 26.5907 466.174
-26.5858 31.6227 467.964
-30.0758 28.2161 466.342
-28.4256 31.9915 466.876
-23.6759 33.0442 471.936
-23.9173 30.4007 472.671
-24.8602 25.8629 469.919
-23.6646 36.3683 476.078
-101.151 41.8188 466.778
-27.6437 35.9756 467.203
-88.6719 42.2881 466.427
-136.153 42.6445 467.651
-116.858 42.357 467.353
-114.862 40.2303 467.328
-130.193 41.8642 467.526
-131.884 39.6755 467.746
-119.236 30.8046 467.494
-90.1956 37.1074 466.731
-86.8748 36.1728 466.64
-84.5627 34.3124 466.647
-90.2015 39.8359 466.619
-91.6449 40.2545 466.693
-42.4716 27.2261 466.123
-45.4387 24.4212 466.07
-47.2326 24.3856 466.159
-40.7044 28.4514 465.817
-138.753 44.7006 467.344
-104.313 32.7707 467.267
-83.498 -35.4804 596.381
-72.0512 16.5755 467.055
-115.203 20.1501 467.664
-158.448 29.9815 431.806
-102.227 12.6785 468.966
-134.568 15.9676 467.552
-153.871 19.1806 442.202
-118.351 13.2438 468.773
-35.6201 13.228 466.423
-54.4946 19.9981 466.348
-40.7886 11.6353 467.228
-40.7334 18.9726 466.136
-40.7183 20.4098 466.208
-60.7225 11.6772 471.646
-158.284 17.4294 432.34
-129.57 18.4653 467.842
-155.228 27.3466 438.752
-144.252 26.3496 461.984
-138.395 28.2732 467.702
-138.615 24.3479 467.439
-144.277 28.4956 461.635
-143.769 29.9956 462.81
-145.811 26.1184 458.443
-139.944 26.7056 467.416
-147.514 29.9459 455.117
-150.487 20.5845 449.557
-160.188 24.5072 427.886
-164.047 33.8926 426.403
-161.363 32.6363 425.663
-159.98 29.7138 428.036
-160.062 28.4402 427.832
-124.283 21.2401 467.816
-153.347 29.8363 442.318
-148.708 28.8479 452.221
-148.042 30.0309 453.796
-154.048 31.3902 440.63
-153.924 25.9145 441.711
-156.628 29.0211 435.516
-155.413 22.4573 438.847
-153.094 24.0879 443.542
-156.623 26.6572 435.55
-151.235 24.8312 447.539
-146.333 20.991 458.103
-147.278 22.0344 455.969
-150.244 22.9569 449.27
-151.335 28.5251 446.818
-158.711 22.4454 431.753
-165.677 28.5224 430.228
-159.64 23.0837 429.717
-157.328 18.5193 434.462
-149.715 16.0185 450.772
-145.063 16.8593 460.582
-148.361 16.248 453.669
-154.888 17.8441 439.249
-156.234 20.9191 436.276
-146.5 16.5503 457.799
-143.619 17.983 463.089
-143.302 22.2586 464.179
-139.718 22.5292 467.079
-142.149 23.8039 465.78
-133.151 22.1286 467.754
-145.678 20.1371 459.501
-144.99 26.5191 460.21
-137.678 19.4557 467.258
-127.771 14.5806 468.112
-130.117 14.8055 468.082
-128.023 16.3917 468.073
-130.174 13.8049 470.664
-135.003 14.3717 468.099
-120.351 13.5868 468.294
-101.94 16.3717 467.601
-122.66 13.7734 468.321
-112.367 13.2629 469.232
-116.581 13.2896 470.2
-125.086 13.5793 469.276
-106.417 15.0797 467.734
-106.296 13.1427 468.166
-97.045 13.0369 467.678
-96.4003 12.4963 469.472
-100.06 17.9469 467.362
-103.967 16.3597 467.588
-116.879 22.1778 467.771
-92.5796 14.6089 467.382
-108.338 24.5317 467.533
-93.48 18.5219 467.3
-90.3355 18.7471 467.232
-94.1304 13.9241 467.451
-91.7546 15.5678 467.406
-82.1198 12.1683 469.546
-84.1737 14.9504 467.119
-76.0484 14.2563 466.918
-72.4925 14.5873 467.094
-80.1701 11.938 468.969
-69.878 14.182 467.09
-76.9685 12.4238 467.769
-50.0475 16.248 466.549
-68.8007 13.0309 467.249
-68.0302 12.1576 469.25
-70.2522 11.3585 471.965
-66.6728 16.3762 466.909
-68.1209 13.9369 467.103
-53.1422 11.5988 471.101
-59.2917 16.0448 466.675
-64.5254 22.3551 466.539
-62.4697 23.8049 466.444
-36.9498 16.5439 466.326
-39.4554 16.6612 466.188
-39.0177 14.0658 466.361
-46.6727 18.111 466.281
-46.1248 15.2401 466.261
-47.6289 15.5899 466.337
-46.1226 11.7337 469.68
-42.3726 11.7162 467.843
-40.8475 11.161 471.52
-47.2465 11.4307 471.749
-32.1546 18.1579 466.352
-32.0512 21.3671 466.312
-72.153 20.3438 466.844
-166.463 21.1425 428.439
-79.3855 20.5674 466.77
-82.055 19.1704 466.882
-57.1361 20.3441 466.248
-53.604 12.8608 466.729
-106.456 16.7033 467.54
-155.465 19.0956 438.104
-131.929 18.801 467.627
-128.492 25.769 467.832
-142.533 30.363 465.403
-152.084 22.3278 445.682
-143.608 32.9992 463.075
-142.979 30.0675 464.656
-100.446 24.1916 467.346
-119.947 26.3677 467.639
-116.281 16.6346 467.594
-38.9246 18.9592 466.08
-143.091 16.409 464.108
-137.872 22.2097 467.355
-136.234 30.7094 467.904
-136.256 27.0654 467.765
-142.071 26.7296 465.979
-133.23 29.5546 467.958
-151.363 32.4813 446.71
-156.829 30.3617 435.306
-158.812 31.9661 430.768
-151.853 31.8245 445.457
-154.449 32.5629 440.235
-155.828 21.4829 437.91
-148.268 20.2487 454.156
-152.665 23.0723 444.394
-159.258 23.7399 430.591
-159.485 18.9908 429.227
-149.756 19.871 451.013
-148 18.4863 454.459
-133.423 23.7556 468.013
-126.494 24.5319 467.822
-122.523 23.5398 467.736
-123.523 25.7598 467.764
-126.387 15.2977 467.8
-127.282 20.497 467.868
-124.885 22.4931 467.767
-107.537 20.4035 467.583
-122.029 22.1444 467.763
-136.612 16.5561 467.238
-125.076 14.3105 468.029
-116.321 25.9872 467.689
-108.615 22.4262 467.512
-96.4891 17.2062 467.327
-110.364 16.3002 467.616
-104.357 14.6279 467.567
-104.036 23.7402 467.394
-106.284 18.247 467.525
-122.484 20.4606 467.868
-114.497 16.2196 467.492
-86.7138 18.0548 467.101
-84.4732 18.4568 467.008
-86.1866 14.1408 467.105
-79.5566 24.7393 466.608
-81.9037 25.6097 466.734
-74.9768 23.6155 466.859
-75.7081 22.709 466.82
-74.5887 22.8781 466.85
-69.9039 19.7786 466.715
-78.9659 21.5648 466.755
-60.378 12.2576 467.915
-66.7317 24.063 466.4
-72.482 21.8103 466.823
-62.7768 22.4823 466.515
-68.7963 18.5638 466.816
-57.3225 15.7546 466.619
-56.5144 12.1205 470.341
-76.2628 20.172 466.781
-72.7377 18.0239 466.953
-43.4146 21.2306 466.088
-43.9362 20.6187 466.084
-33.8538 20.8519 466.152
-44.9363 14.7447 466.187
-136.811 20.632 467.427
-106.019 28.8427 467.38
-86.1368 25.1344 467.046
-58.0824 20.154 466.342
-166.366 21.4245 429.869
-58.5006 13.2873 466.692
-160.413 13.2324 434.413
-156.513 12.9317 439.264
-152.702 13.3814 446.709
-150.241 14.1962 450.115
-155.529 13.6356 438.98
-148.6 13.5287 457.682
-144.588 13.3287 463.884
-143.469 13.3945 464.942
-86.1575 -23.7928 591.669
-159.18 16.6478 430.408
-159.057 15.4103 431.821
-132.221 13.5498 472.271
-88.5429 -19.6415 594.057
-71.4126 -60.2731 593.047
-86.8799 -23.6241 594.271
-90.1591 -15.4165 599.557
-91.0005 -12.085 596.004
-149.609 13.3912 453.355
-147.485 13.6315 459.735
-137.245 13.7227 468.523
-138.568 13.5753 468.511
-151.99 15.7859 446.409
-90.134 -14.1553 594.171
-89.3959 -16.3256 593.751
-87.0291 -25.3424 599.853
-88.9773 -15.6833 592.088
-84.6853 -29.4819 593.547
-81.8234 -35.7651 591.969
-80.6638 -37.3259 591.515
-82.7387 -31.1416 592.029
-81.6996 -39.0479 593.786
-80.3063 -40.275 591.606
-81.7704 -39.8441 596.074
-79.7937 -45.8767 598.698
-79.1201 -46.9067 594.638
-84.6454 -30.13 594.799
-83.8161 -34.2981 598.293
-94.9232 -68.5752 594.801
-95.1244 -67.8056 597.911
-76.1964 -69.4825 594.22
-73.1403 -67.1032 593.853
-75.1752 -69.2018 595.706
-71.4842 -63.4154 593.466
-78.6512 -69.288 591.518
-74.119 -68.259 592.992
-77.3211 -69.4425 592.498
-76.4332 -70.0647 597.894
-88.157 -70.805 592.819
-85.2693 -70.4564 593.309
-73.5999 -67.8222 597.655
951.106 44.9717 429.373
942.635 74.5702 445.733
952.364 27.6691 427.01
834.402 80.417 474.395
899.424 88.6822 442.676
862.646 36.4812 468.04
935.233 98.5917 421.754
952.635 73.3823 426.115
871.5 -50.7934 598.036
957.888 67.8369 424.023
955.681 69.6542 422.5
931.035 73.2766 463.045
928.591 100.719 422.46
937.312 58.6683 457.166
935.62 55.1946 460.086
953.686 66.47 424.327
936.435 67.9009 458.941
927.047 14.9271 468.248
939.163 51.9276 453.637
934.653 65.2121 461.893
911.28 40.4717 467.967
845.943 43.5894 467.908
948.29 55.6241 436.062
946.128 101.17 422.907
937.955 15.8294 455.932
953.904 44.2841 424.541
956.293 75.366 422.712
927.958 79.0266 462.622
937.294 54.5051 457.476
946.049 16.4125 439.898
945.479 50.7842 441.424
938.75 68.2033 452.629
923.024 57.1901 467.169
951.896 35.1922 428.172
948.567 38.989 434.337
942.249 64.0059 446.36
925.063 100.088 421.79
939.55 25.5442 452.223
957.313 78.8997 423.441
949.067 36.8715 433.747
865.516 24.6818 468.101
873.259 95.221 422.162
870.372 -57.0117 596.081
944.746 82.8527 441.598
936.578 28.7325 458.198
943.664 48.695 444.28
941.505 31.9912 449.581
938.011 58.8754 455.92
879.248 42.5341 467.368
877.342 -25.7615 594.398
948.277 87.175 434.351
956.709 56.9968 422.955
895.485 64.9916 467.075
868.331 94.1128 427.174
953.584 100.045 426.054
954.702 78.5025 423.521
917.608 82.1707 461.568
868.832 27.1001 468.009
943.692 62.8387 443.605
944.849 70.1139 441.489
917.227 89.2978 440.504
952.252 45.0569 427.044
946.602 46.2684 437.847
928.179 76.7509 463.679
947.392 50.3607 436.611
937.396 21.5522 456.808
947.709 12.4484 440.19
946.538 51.8456 438.836
933.121 98.8279 421.994
945.482 26.2639 441.263
939.206 69.9228 451.517
931.604 98.8947 421.919
943.606 101.138 423.472
843.279 68.6452 467.87
820.97 78.4408 473.472
954.956 62.6508 423.156
935.413 40.5046 460.84
945.535 84.6344 439.955
934.945 33.2776 460.985
946.217 62.211 439.184
946.779 49.4315 437.545
939.233 84.4405 446.971
940.082 60.4093 451.549
937.219 23.9994 456.91
953.81 91.8797 423.732
927.723 100.408 422.056
939.641 84.838 446.333
941.991 57.5365 446.811
933.172 14.0825 465.532
946.485 56.6574 439.435
939.623 39.6865 452.147
844.737 18.8538 469.181
922.841 98.3019 422.045
914.195 55.5438 467.067
823.544 13.9174 471.782
935.634 60.1877 460.286
940.677 78.8442 449.045
946.575 17.7842 438.476
923.644 100.582 421.841
935.765 100.228 422.022
938.514 100.411 422.15
944.368 100.79 422.81
941.664 100.438 422.564
826.382 14.3614 470.851
949.251 68.7266 432.422
943.067 43.5481 445.851
948.426 60.9824 433.422
855.232 45.1164 467.776
937.083 18.6375 457.732
947.477 16.7757 435.985
951.772 89.8925 428.127
939.159 53.4703 453.157
830.749 44.4143 468.095
937.483 73.6593 455.158
932.982 74.2174 461.428
948.516 53.2296 435.463
942.576 62.6613 445.505
937.058 98.7751 422.049
941.496 100.997 423.59
870.558 -70.1287 597.888
913.315 23.7743 468.162
951.35 76.4975 427.859
957.465 76.5309 423.61
869.205 -60.3367 599.699
956.422 73.3559 422.66
941.354 64.2018 447.837
939.235 74.2441 451.953
933.258 71.2805 462.076
895.371 40.7269 468.015
872.505 31.92 468.316
880.196 -15.9663 594.995
943.513 37.0501 445.555
958.331 64.229 424.141
958.254 65.5889 425.125
944.69 68.3361 442.05
938.006 66.2326 455.537
934.435 65.6624 462.203
953.477 41.7009 425.391
951.745 77.6598 426.995
942.767 72.1698 445.359
942.896 17.9521 445.221
949.248 52.3896 433.533
938.757 79.977 451.008
929.754 78.9554 461.356
895.225 95.3684 422.79
853.755 14.7739 470.709
819.756 73.9585 474.131
908.086 63.9992 467.196
950.804 68.5203 429.533
940.905 33.9117 450.701
944.167 31.4 444.439
835.388 26.1199 468.967
940.385 69.7679 449.233
943.012 52.0845 445.07
927.146 90.9816 436.122
938.288 72.654 453.741
938.507 58.5103 455.269
938.157 67.236 454.626
937.501 56.8661 457.172
953.587 74.4539 424.575
949.432 86.6801 432.377
935.719 34.9811 459.991
953.01 48.448 425.596
901.322 81.0194 462.906
952.328 50.5328 427.415
911.685 56.2029 467.088
954.859 30.6429 424.298
934.194 64.7958 462.397
951.794 38.5828 427.828
945.883 58.653 439.839
889.562 98.4944 422.45
935.313 24.9113 460.447
905.308 98.7508 422.49
904.396 63.7702 467.029
931.538 20.433 465.95
875.271 -49.7522 596.048
946.465 69.2725 437.5
933.324 63.6783 463.248
908.894 67.5876 467.108
867.616 94.0779 431.832
938.521 61.5778 454.198
940.383 80.3489 448.65
913.055 67.0534 467.3
949.527 71.5381 432.161
957.718 74.422 424.079
866.68 72.2951 467.07
946.872 84.3199 437.158
820.087 14.909 473.27
877.802 35.5804 467.951
934.511 47.9276 461.785
939.088 46.2261 452.74
948.202 48.0207 435.007
941.923 13.5083 448.717
901.005 54.3038 467.356
871.574 96.4545 423.529
909.806 56.5732 467.108
930.225 21.2602 466.85
930.802 14.9892 467.304
953.883 35.7722 424.715
873.802 -41.7346 599.635
935.638 68.5261 460.278
916.839 38.3894 467.944
948.966 76.4812 432.414
904.273 83.4396 458.325
957.933 38.5851 425.195
950.085 71.366 431.412
937.859 47.999 456.431
938.334 70.2169 453.497
896.047 87.3516 448.294
936.228 52.0263 459.334
934.201 34.558 462.805
933.591 78.5058 458.425
876.817 48.6509 466.821
898.792 52.2904 467.516
948.846 56.4972 433.926
955.893 65.1287 422.673
942.243 53.354 447.218
943.215 68.712 444.442
934.014 26.99 462.349
880.682 85.8258 447.839
937.641 14.1678 459.216
940.153 57.8461 452.241
948.617 22.0652 434.417
947.827 84.2382 435.131
935.063 51.9523 461.261
949.759 88.2174 431.885
941.453 39.7101 447.918
946.797 38.8695 437.482
934.463 30.8152 461.574
904.173 91.387 432.658
931.246 32.5004 466.357
939.537 33.3724 452.81
949.912 80.7391 430.582
932.89 28.1842 464.655
945.576 68.9549 439.546
933.089 80.7052 455.609
926.923 74.2542 465.26
956.378 81.2928 422.54
950.329 24.12 431.712
937.976 59.7511 455.801
956.787 70.2892 422.872
944.415 42.9433 442.849
941.568 72.5586 447.603
885.665 43.5314 467.588
951.589 80.356 427.191
938.781 20.5548 454.002
874.548 -51.2604 595.236
937.299 78.6501 453.077
951.252 16.1992 429.83
938.718 39.6055 454.039
938.477 50.912 455.297
948.762 82.2763 433.116
823.378 78.1937 469.695
952.908 79.0085 425.002
819.963 39.8889 477.482
941.78 85.6728 444.202
846.558 78.2378 468.009
951.436 62.0545 427.489
934.566 73.8111 460.154
905.629 86.6101 449.8
955.024 86.1458 423.428
954.825 54.6733 423.085
948.997 29.8398 433.66
944.54 81.2861 441.988
871.252 14.5074 469.68
935.766 58.3445 459.934
949.903 28.7716 431.879
913.203 70.5581 466.758
947.967 83.6952 434.786
937.422 30.5338 456.016
943.244 34.8433 445.853
946.592 41.903 437
931.532 83.0198 453.502
949.618 89.8563 431.846
957.153 84.5467 422.477
946.968 20.3015 437.905
878.162 -21.8073 599.084
941.773 54.039 448.145
929.137 72.726 464.322
946.275 78.6787 437.977
953.186 38.0363 425.804
926.451 82.1372 459.485
944.193 76.1377 442.715
943.517 80.0373 444.123
938.33 37.1385 455.273
929.639 74.5344 463.501
853.112 44.5728 467.654
820.514 64.6046 475.494
874.442 -39.8352 599.62
938.016 70.5708 454.159
916.544 67.8893 467.032
950.737 56.5793 430.695
897.498 88.5986 443.772
819.861 76.3547 475.297
822.8 78.5548 471.391
869.038 93.1517 425.946
934.653 38.316 462.236
861.425 13.8294 471.87
927.124 78.527 463.568
935.873 65.0971 459.754
852.818 14.1977 471.735
929.441 82.6381 456.269
953.776 58.8577 424.799
915.662 56.258 467.134
948.478 74.6812 433.456
940.293 52.7181 450.24
954.569 82.6907 423.817
887.129 64.937 467.255
831.435 32.1478 468.429
877.69 -24.2568 597.501
915.419 59.8889 467.315
944.197 14.6304 442.563
951.54 70.1941 428.431
945.621 89.0003 437.658
953.21 87.6068 425.154
953.999 67.9382 424.192
950.852 71.9861 429.978
898.491 93.2604 428.062
943.214 30.2954 446.21
946.811 56.5281 438.476
947.353 80.8825 435.857
945.027 39.1367 441.267
938.816 28.4762 454.382
934.475 68.5406 461.568
934.244 78.8247 457.071
919.921 42.2324 467.734
951.076 50.3928 429.971
871.473 78.3161 465.405
940.695 67.4556 448.863
949.479 82.4088 431.578
951.221 58.7184 429.697
856.194 72.6498 467.47
881.48 98.1255 422.351
942.927 83.8807 443.936
861.223 14.3244 470.03
950.407 42.2601 431.417
930.945 42.0441 466.085
883.678 97.8488 421.873
938.741 56.8663 455.056
952.861 92.2321 425.28
952.322 36.7968 427.168
882.017 82.5503 457.71
952.558 65.3996 425.343
955.327 83.885 423.167
952.41 68.7573 426.413
946.079 80.9985 438.553
933.723 74.7184 460.619
877.92 -23.6767 593.181
873.558 96.8886 422.277
947.213 82.3114 436.259
946.58 83.2452 437.654
946.37 79.6885 437.832
951.069 89.8372 429.303
955 76.8915 423.332
958.254 82.0997 424.465
957.824 81.0025 423.384
947.953 91.1923 432.579
822.983 18.0888 470.254
946.933 90.4933 435.071
939.57 82.4168 448.022
942.514 86.0807 443.449
942.206 68.4623 445.649
933.906 81.5028 453.529
881.073 -73.0053 592.329
941.268 82.4246 446.438
943.589 82.6161 443.664
946.387 71.4484 437.984
945.483 76.8723 440.013
938.833 78.598 451.704
939.41 73.2138 451.51
945.648 64.5537 440.084
951.442 63.5683 427.287
955.254 74.9404 423.084
957.162 72.5531 423.797
957.885 64.7654 423.462
957.967 70.3314 425.582
939.102 82.046 448.859
941.054 70.1513 448.149
942.01 71.2946 446.563
935.869 79.7964 453.74
947.247 74.6247 435.925
939.897 47.8461 451.559
948.729 47.3793 434.071
878.614 -20.1548 599.1
955.654 59.806 422.803
939.737 63.7198 451.735
932.792 66.4515 463.89
930.492 23.6213 467.044
914.377 25.5727 598.937
826.674 69.8957 468.033
940.747 23.1753 449.736
948.238 71.1248 434.204
934.274 20.1557 463.214
920.961 24.4811 468.166
844.082 30.8664 468.766
938.791 49.8471 454.523
954.857 89.0575 422.95
948.888 89.67 432.89
895.384 94.9011 423.815
956.454 68.2535 422.749
939.127 65.5497 452.35
947.26 68.0798 435.853
940.484 65.2055 449.809
937.189 62.3288 457.415
936.579 65.2851 457.644
932.816 76.6308 460.469
935.504 62.8607 460.575
947.737 63.6337 435.589
887.868 -70.1281 594.108
939.792 13.5296 452.59
889.476 58.1854 467.203
885.105 87.723 445.719
936.841 41.9826 457.986
938.142 54.7454 456.222
958.198 87.1023 423.86
909.381 64.8138 467.271
950.619 29.7015 430.253
831.235 78.8825 467.97
935.972 95.5499 428.015
958.068 85.7104 425.636
935.724 48.2525 459.722
869.821 -62.3987 593.523
941.776 69.2056 446.75
903.072 28.3947 468.041
942.717 54.5051 446.221
942.73 20.1868 445.564
945.685 48.7973 439.905
946.126 71.6672 438.583
954.775 16.1442 427.995
825.367 36.5118 468.796
882.686 92.9089 427.012
949.92 66.4125 431.242
937.601 38.7768 456.621
934.05 30.4622 462.431
948.196 80.154 434.181
904.278 95.2592 424.175
932.883 31.2627 464.925
952.494 59.8799 426.587
945.341 40.2817 439.974
941.128 49.5188 448.017
896.377 28.2553 468.046
825.642 53.7567 468.392
893.27 63.3841 467.174
954.72 56.4129 423.19
944.99 64.7876 441.572
906.809 61.4894 467.091
949.153 80.6354 432.133
953.229 20.1446 426.632
951.02 40.6406 430.228
947.465 77.575 435.391
938.746 80.5768 450.64
943.774 42.2082 444.12
954.145 90.8675 423.543
874.909 97.9343 423.118
903.493 60.4804 467.009
950.766 82.642 429.115
952.135 83.6274 426.567
942.978 66.7071 445.109
952.99 82.0598 425.227
941.428 66.1847 447.204
950.218 77.5573 429.999
947.891 76.1453 434.515
926.831 16.7281 467.931
949.965 60.8564 430.384
938.096 74.8094 453.828
947.516 23.8021 436.596
947.494 75.5176 435.355
942.85 88.071 441.943
950.374 88.0712 430.849
936.197 75.6379 456.591
935.486 76.3505 457.465
953.544 72.3056 424.6
952.829 70.0655 425.907
951.274 69.3708 428.738
935.965 78.2368 455.052
943.514 42.956 444.941
946.856 66.5114 436.157
936.762 69.3596 458.022
942.552 76.323 445.975
946.43 65.4038 437.903
919.134 90.3437 437.31
933.239 39.0077 464.452
870.142 -68.6973 595.027
875.454 -36.8589 599.678
944.858 66.6541 441.716
941.998 64.8614 446.756
946.443 66.0699 437.041
950.48 62.2749 429.89
948.741 63.4438 433.566
937.064 67.2967 457.209
941.715 13.1002 449.81
943.086 27.8941 446.271
868.686 94.1446 425.655
943.817 73.7087 443.528
937.654 72.9724 454.857
934.453 61.6441 462.086
947.552 88.9934 435.534
868.658 53.6652 468.501
847.834 42.1545 467.777
937.517 51.5834 456.872
842.578 22.6209 469.066
949.86 37.3355 432.541
950.096 55.0432 431.295
829.024 77.5548 467.833
944.439 32.5842 443.556
899.201 39.9633 468.169
934.615 60.4055 461.956
945.767 60.8185 439.77
954.573 40.3198 424.078
952.052 66.3741 426.183
940.424 46.7329 449.898
880.971 30.9145 468.262
948.735 92.9169 429.735
869.845 94.75 424.646
951.698 29.6435 427.786
952.364 88.1871 427.132
951.903 84.507 427.189
950.59 85.3224 430.222
940.444 66.8036 449.267
955.003 80.778 423.477
944.932 76.5952 441.199
943.699 76.3596 443.724
941.72 78.9261 447.517
943.146 80.2852 444.834
944.816 78.5697 441.441
944.122 78.9708 442.879
949.599 49.9165 432.358
953.276 90.3521 425.411
939.609 69.0369 450.706
883.437 41.3549 467.593
883.625 -19.8452 595.556
936.899 70.1474 457.404
946.049 53.5884 440.346
931.163 37.2007 466.257
905.653 60.6489 467.056
958.542 60.8353 424.685
925.456 33.934 468.021
944.413 84.5431 441.878
824.634 78.5925 470.532
827.176 78.8091 469.844
950.992 74.9424 428.724
938.813 59.9014 454.259
948.005 78.7525 434.379
935.543 26.5232 460.128
911.228 88.5005 443.97
940.63 75.9247 449.539
936.551 38.4946 459.369
912.79 38.2201 468.054
945.015 30.5063 442.274
930.686 77.7011 461.593
930.808 76.8285 461.893
927.762 74.7593 464.588
913.256 71.9244 466.414
910.802 70.6332 466.796
909.778 71.0113 466.726
929.613 81.89 457.349
932.552 80.2237 457.07
929.452 80.5199 459.553
932.443 78.836 459.508
953.399 80.1351 424.549
949.922 90.7693 430.746
952.427 90.8924 426.833
954.912 89.7684 422.635
953.092 86.7176 425.264
874.368 -55.4636 594.422
949.135 62.7688 432.604
955.173 92.8886 422.454
954.168 88.8698 423.753
948.174 87.8673 434.58
944.036 86.1693 441.988
946.942 88.0203 436.851
937.231 70.771 456.28
936.035 74.5771 457.5
944.147 88.3788 440.249
944.69 88.115 439.723
951.977 45.0351 427.899
945.477 86.5478 439.622
946.843 73.3899 436.826
932.025 67.5891 464.168
931.649 70.6345 463.358
943.812 84.2441 442.819
904.518 58.411 467.123
948.52 78.265 433.262
952.171 80.2017 426.048
945.563 73.8275 439.854
945.748 72.7054 439.439
941.646 74.2821 447.575
945.883 65.9584 438.964
942.892 70.2551 444.649
950.729 64.3776 429.193
951.071 66.0887 428.223
951.83 72.151 427.794
948.849 66.4316 433.362
951.108 70.4681 429.535
937.902 44.552 455.337
930.799 80.616 458.273
934.845 82.3534 451.718
934.427 79.4991 455.615
925.189 81.2411 462.37
927.043 80.749 461.377
940.775 71.673 448.898
938.434 69.1844 453.155
940.6 73.6223 449.472
935.969 71.7548 458.723
938.74 66.1561 453.251
934.108 67.7451 462.331
877.661 86.2518 445.464
918.778 58.0745 467.27
950.208 69.6125 430.88
942.083 67.2902 446.146
951.837 63.5134 426.456
951.916 62.9156 426.388
948.37 68.3054 434.051
947.997 68.6102 434.793
947.775 71.2953 435.132
907.143 68.617 466.954
912.523 69.0616 467.099
911.089 69.0404 467.052
933.863 54.183 463.431
941.643 47.7084 447.012
944.588 44.7331 442.505
835.659 54.7541 468.185
940.504 43.6494 449.564
877.622 77.172 464.775
839.882 44.4511 467.958
939.211 35.8644 453.548
942.456 40.6908 446.421
957.973 80.6545 425.773
947.88 14.5026 435.223
927.981 20.788 467.713
941.581 45.529 447.252
948.829 49.6956 434.14
911.165 22.3514 468.327
941.584 44.2688 447.71
952.52 84.9081 425.957
951.004 86.674 429.657
949.251 84.3274 432.443
948.907 83.556 432.86
928.794 70.6028 465.035
949.164 74.4809 432.445
945.35 78.3233 440.239
952.948 74.0614 425.471
939.403 77.1826 451.547
954.477 69.6388 423.375
954.216 71.9383 423.662
899.303 74.7885 466.415
935.547 70.3329 459.957
940.035 78.7663 450.226
934.572 71.8015 460.699
911.058 66.1666 467.312
943.531 60.228 443.675
953.528 75.5131 424.546
833.063 54.4516 468.428
939.637 56.2954 452.658
933.481 52.3591 463.811
936.886 31.5985 457.022
947.394 58.8609 436.207
944.096 46.5406 443.862
945.605 45.2641 439.757
917.094 51.2349 467.368
942.215 15.4904 447.01
944.349 29.5989 444.254
940.025 37.1779 452.048
944.827 12.0672 445.271
943.21 59.0958 444.363
953.996 50.8221 424.544
905.124 66.3864 467.087
950.863 59.9944 429.418
953.226 54.0774 425.293
953.128 58.8965 425.31
950.674 52.5597 430.006
951.648 53.2108 428.113
951.839 60.201 427.815
957.142 59.8314 423.08
955.425 58.2437 422.715
958.347 58.5728 423.969
941.076 88.8419 441.952
950.224 46.2279 431.357
945.41 53.5524 441.136
945.578 53.1603 441.014
952.932 62.2043 425.072
951.494 54.0248 428.427
952.863 56.2732 427.368
952.267 59.1578 427.437
947.3 46.3444 436.591
948.548 58.3832 434.086
942.142 49.6842 446.303
943.8 54.4471 443.513
941.698 59.1359 447.487
938.158 52.7641 456.064
951.899 16.9165 428.52
936.81 50.2555 457.824
935.36 46.5906 460.582
933.271 62.597 463.204
921.003 55.6984 467.159
950.796 24.8781 430.574
920.906 58.3222 467.197
837.788 50.4266 468.049
818.541 23.6726 474.912
910.852 89.076 440.356
869.242 -64.0122 596.311
940.519 48.4652 449.786
907.238 56.5565 467.15
911.235 64.0326 467.365
907.384 60.2549 467.051
938.869 12.5914 457.242
934.697 56.6297 461.516
936.949 48.7117 457.643
888.734 82.8565 457.267
923.495 94.5793 427.924
937.238 38.9074 457.788
951.715 35.8385 428.333
840.545 36.9428 468.411
945.542 62.4154 440.321
940.003 29.0724 451.859
856.905 73.4813 467.527
856.447 52.0589 467.588
854.1 15.8049 468.864
833.411 40.6824 468.222
864.654 34.5582 468.246
877.739 97.7297 421.828
949.38 56.0056 432.8
932.375 23.3932 465.301
934.628 28.426 461.019
954.912 38.7859 423.95
900.661 29.3037 468.226
835.393 29.8762 468.723
945.376 17.1099 440.84
937.673 50.2289 456.304
869.479 32.9608 468.33
937.236 34.4914 456.745
917.096 87.4592 446.268
944.837 42.5229 441.626
879.168 38.0407 467.745
920.788 53.5507 467.318
947.985 22.8026 435.477
913.081 22.0657 468.361
832.682 31.5345 468.512
914.162 20.4975 468.334
948.008 34.7319 436.143
831.814 36.7861 468.187
936.233 60.5755 459.376
894.729 27.5178 467.98
951.258 22.6202 429.894
938.78 48.5749 454.093
932.497 45.828 464.976
871.565 -52.2474 594.166
876.161 -33.8943 598.282
934.939 54.5211 461.535
907.435 54.3575 467.212
946.379 51.1999 439.283
905.367 55.7161 467.206
945.699 38.7276 439.675
926.731 94.7248 428.333
830.449 73.5708 467.915
907.19 18.6333 468.298
946.969 54.2857 438.263
939.688 30.0156 452.729
932.5 87.5521 444.744
878.483 -22.8639 592.308
931.603 44.3115 465.785
916.618 59.7132 467.325
881.741 -13.606 592.143
933.093 24.1475 464.467
940.822 60.9684 449.807
873.923 -41.538 595.865
945.467 46.9512 440.046
950.773 54.7657 429.892
892.613 -71.0012 598.075
848.765 62.3849 467.469
932.07 50.1035 465.288
949.959 17.0964 431.994
875.606 89.9034 434.301
874.38 63.364 466.948
955.233 46.6814 423.568
949.927 42.6868 432.161
944.804 24.0869 442.22
948.099 51.889 435.847
939.633 53.6716 451.359
933.184 56.1145 463.987
952.031 41.7012 427.987
821.531 48.3769 469.661
946.772 57.4418 437.647
938.568 54.5382 455.007
933.292 60.169 463.585
947.204 44.5026 436.321
934.047 50.2247 462.626
872.281 -49.3437 593.779
913.245 46.1356 467.665
894.986 92.4792 429.613
860.564 18.4559 468.129
879.891 91.3181 431.463
870.454 -55.3814 599.422
952.227 47.1187 427.313
952.111 48.2625 427.845
953.362 50.7263 425.546
952.966 52.3849 425.961
954.682 52.5491 423.359
955.223 50.0929 423.49
952.659 46.1552 426.033
948.296 50.5748 435.261
948.191 54.9593 436.345
936.116 55.7776 459.178
936.064 53.2414 459.39
948.624 60.4183 432.63
949.716 51.9805 432.015
946.443 61.2413 438.603
946.131 59.3752 438.815
947.557 60.0702 435.988
944.433 56.0761 442.047
916.893 56.6544 467.171
952.101 57.0963 428.527
937.96 62.2327 455.632
949.094 53.4711 434.415
942.68 50.1911 445.562
950.328 58.2526 431.483
917.815 58.6342 467.285
915.286 63.4141 467.497
942.447 60.3682 445.882
945.039 61.72 441.078
941.299 52.1198 448.455
946.676 50.2469 437.948
946.165 50.3338 439.641
943.703 56.4617 443.554
941.757 60.7993 447.172
941.551 56.2379 449.855
940.54 57.5541 451.252
940.505 55.2997 451.186
940.066 50.9887 450.744
941.315 53.7069 448.86
918.709 54.4652 467.119
938.062 47.3557 456.126
939.004 46.4901 452.94
867.354 90.3718 442.399
937.208 46.2163 457.772
899.449 56.0935 467.279
934.841 50.1707 461.169
933.044 48.7885 464.03
933.285 49.9739 463.716
933.59 46.4518 463.603
933.994 60.9147 462.759
852.996 47.0568 467.753
901.42 60.3908 466.948
901.27 59.2091 466.99
903.728 56.8834 467.155
903.515 62.4369 466.991
933.345 40.3646 464.187
874.406 -41.22 593.953
945.845 32.688 439.644
923.297 32.041 468.483
950.343 44.3724 431.394
872.871 -44.9912 598.522
948.73 42.3481 433.699
940.544 35.321 451.354
845.469 60.884 467.878
906.72 16.6911 468.517
938.929 44.5896 452.921
854.9 16.0848 468.674
862.85 15.3817 468.492
876.994 20.6962 467.984
937.407 15.2743 457.738
912.832 58.4631 467.15
946.173 43.9764 438.186
869.581 14.4829 471.659
855.635 48.5031 467.725
901.122 85.1891 454.385
934.878 29.1669 460.443
939.823 41.8518 451.432
950.972 26.5592 429.881
888.914 94.9534 422.335
912.694 32.4345 468.049
900.388 57.032 467.177
898.889 58.2428 467.135
942.35 57.5605 445.952
912.873 64.3449 467.444
890.879 -73.0184 593.606
953.466 22.4765 425.613
908.328 82.9217 459.997
934.919 88.4927 441.695
911.462 60.3866 467.203
911.166 62.3118 467.294
912.759 60.746 467.269
906.285 58.4718 467.11
909.301 57.9434 467.076
936.818 34.4781 457.706
950.029 29.7564 431.535
944.871 32.2102 442.23
868.887 55.5579 467.664
945.074 18.5939 441.271
951.538 39.9586 428.607
950.707 32.1902 430.508
950.351 32.2507 431.144
953.372 32.5417 425.211
952.509 33.5148 427.252
946.83 31.6624 437.734
947.873 33.3729 435.941
953.411 34.368 425.222
952.741 29.6052 426.225
952.248 32.95 427.97
951.26 33.5393 429.896
950.772 34.5627 431.001
951.64 28.7668 428.008
930.07 30.3719 467.118
949.209 34.0693 433.238
943.72 39.9516 444.364
942.186 41.9595 447.243
942.217 31.1104 448.061
943.602 27.2318 445.176
949.687 34.2316 432.493
951.375 37.1317 429.437
952.425 43.323 426.869
945.539 43.0777 439.745
948.652 41.2151 433.521
944.345 41.1079 442.553
947.174 40.5806 436.008
948.398 32.7807 434.768
938.732 30.3416 454.324
935.463 16.2034 461.603
940.77 38.2457 449.658
940.672 30.5745 451.01
941.053 30.0247 450.184
934.968 45.0353 461.332
933.792 43.6137 463.444
932.68 44.823 464.848
933.826 32.0548 463.198
902.977 99.5245 423.856
941.695 96.416 427.64
823.554 62.3275 469.06
842.14 67.4495 467.909
932.897 100.943 424.046
948.207 29.7055 435.252
875.571 -46.1953 594.172
836.954 34.8631 468.571
940.859 20.1877 449.983
930.599 39.1287 466.292
939.177 39.065 453.046
937.034 26.3685 457.827
876.03 91.5533 429.829
946.372 25.3123 439.285
947.76 12.6351 436.312
869.165 40.3342 468.266
943.224 38.3334 446.03
925.421 74.5688 465.913
952.507 24.3654 427.552
937.886 33.3516 455.507
941.557 16.1299 448.41
875.202 -47.9388 594.852
905.424 90.7449 434.382
875.615 -51.2416 599.947
957.3 52.2056 427.494
849.313 65.7119 467.679
889.8 60.5822 467.188
941.68 22.5058 447.912
957.666 94.3803 425.767
942.554 94.9237 430.41
931.929 41.1198 465.546
931.469 34.7551 466.074
823.134 69.2345 469.116
883.008 -13.8479 591.806
944.672 36.2085 442.83
945.638 34.7592 440.041
944.762 34.5056 442.063
942.976 32.3152 445.957
947.888 41.7495 434.802
936.736 40.6923 458.463
938.298 38.8179 455.278
935.572 42.4687 460.391
937.862 24.0443 455.795
945.847 30.1907 440.263
951.013 42.9179 430.243
951.349 37.5814 429.035
954.179 42.0477 424.26
947.394 42.7999 435.643
950.046 38.6513 432.054
941.476 36.841 449.123
941.983 30.2407 448.668
948.017 29.8759 435.603
945.891 29.1393 440.298
944.464 38.1098 443.071
945.367 36.1035 440.545
947.19 37.9908 436.719
940.511 42.1008 449.544
940.204 31.6991 451.801
940.181 38.04 451.631
937.339 36.5828 457.355
936.844 45.2158 458.253
935.278 37.1262 461.221
934.367 41.8351 462.56
938.366 32.3351 454.666
938.545 34.7767 454.458
941.803 36.4884 448.72
940.106 43.5695 450.464
933.681 34.5445 463.708
936.266 36.3325 459.476
931.552 28.534 466.121
935.099 14.3127 462.498
914.844 85.6612 453.9
849.622 14.0541 471.761
949.456 12.1535 433.964
947.144 36.6132 437.79
953.925 27.1532 425.027
875.856 -35.3351 597.714
838.76 37.0982 468.473
876.551 -34.0986 591.808
953.214 39.502 425.763
918.868 79.6526 464.911
937.478 42.4283 456.082
932.564 34.1464 465.242
937.715 27.6757 456.319
909.739 54.0051 467.194
875.908 -46.3649 595.11
883.898 -72.1718 592.059
946.861 27.8521 438.179
951.162 14.3658 431.209
934.783 34.7472 461.597
941.542 24.5639 448.371
950.767 12.3887 432.345
940.072 97.5606 425.365
873.466 93.5845 423.267
949.922 14.9983 432.586
953.286 27.8554 426.001
952.962 24.3482 426.215
944.871 13.0592 443.935
942.569 17.2923 446.031
948.869 13.5914 434.195
946.96 14.1363 438.042
945.054 14.0344 442.028
936.676 20.2302 458.288
938.664 22.0488 454.257
932.556 18.5815 465.522
932.679 16.8383 465.165
931.155 21.7839 466.216
929.345 19.5201 467.04
946.452 22.4824 439.067
938.365 26.9269 455.162
940.818 24.5948 449.634
935.61 19.7607 460.491
935.026 19.5558 461.775
934.846 21.8118 461.661
934.083 20.2489 463.496
956.249 21.7785 424.835
940.767 16.8861 450.082
927.415 67.0889 466.002
893.324 75.4649 466.602
924.6 95.6441 425.543
866.783 14.5841 471.832
856.909 14.7421 469.383
853.402 74.3067 467.669
875.33 14.7271 468.554
870.916 51.3006 468.008
884.292 57.6336 466.884
926.626 43.2485 467.155
923.319 45.0005 467.421
825.517 13.9965 471.642
950.859 20.0303 430.107
950.215 20.2497 431.478
937.756 13.2674 460.248
946.007 13.0228 442.034
949.491 19.9074 432.889
945.455 18.4448 440.677
946.404 15.8855 439.224
945.299 22.729 441.353
874.298 22.6167 467.959
933.687 23.0785 463.463
900.314 71.029 466.781
941.309 98.8894 422.661
825.63 18.073 469.754
942.89 14.7644 445.985
946.336 12.8582 441.886
950.617 22.1516 430.871
943.768 16.2513 443.593
930.488 18.7847 466.576
929.291 18.8393 467.098
930.23 16.0348 467.323
938.459 16.689 453.916
939.531 20.1925 452.293
939.175 13.1767 455.555
938.58 13.9809 455.903
947.986 20.9632 435.469
935.562 22.1833 460.091
948.976 26.6778 434.028
949.174 28.6716 433.393
943.577 20.955 443.788
944.66 20.3492 442.009
883.036 -73.4603 593.917
934.357 24.8783 462.059
948.092 26.003 435.518
949.317 16.124 433.339
869.77 -58.3802 598.494
941.994 19.0947 447.724
952.082 24.4969 428.323
952.68 26.4615 426.855
878.444 24.228 467.969
932.286 27.1425 465.397
940.675 12.3898 453.807
933.502 16.1418 464.207
935.104 17.97 461.64
941.46 15.0841 448.864
943.704 14.1299 444.268
940.56 18.2109 450.557
937.338 22.2803 456.835
947.671 19.1799 436.138
933.435 18.9456 464.466
928.861 24.4069 467.864
931.091 24.8169 466.645
929.675 26.843 467.648
943.239 24.379 445.149
943.916 25.2874 444.097
939.744 24.2522 451.601
938.928 24.063 453.484
941.153 27.6677 449.432
940.647 26.116 450.107
933.48 26.6479 463.853
929.489 28.4312 467.714
943.397 11.0526 453.476
867.106 30.6164 468.198
932.332 58.692 464.323
881.096 -22.4817 592.283
893.048 70.135 467.039
820.174 34.7652 476.253
871.214 -52.1897 599.427
938.934 18.6329 453.335
939.364 18.2825 452.309
946.051 20.3333 439.863
854.749 32.3253 468.21
874.669 83.5321 453.882
872.996 -70.4444 592.653
907.657 84.9815 454.409
871.582 -50.4547 598.144
946.154 22.7935 439.779
946.18 23.5099 439.714
946.689 26.0042 438.617
933.846 12.0131 468.311
857.455 29.0447 468.201
936.629 12.2997 464.147
957.863 88.9408 426.107
855.265 83.1113 476.025
905.381 47.2397 467.821
896.857 13.807 470.133
893.421 14.1698 469.971
889.651 53.1396 467.254
886.022 81.2368 459.633
869.137 85.3253 449.518
819.977 37.2525 472.002
909.468 88.6871 442.116
855.054 14.0027 472.133
859.645 14.6193 469.268
847.733 14.3866 469.622
827.636 14.0216 472.979
916.885 84.0018 457.689
863.863 74.246 467.182
889.232 -70.5124 591.939
868.748 60.3217 467.074
956.797 26.4575 424.505
952.286 99.3149 424.151
823.343 51.6037 468.635
933.805 97.5889 423.274
863.554 15.1381 469.23
888.51 93.7706 424.885
895.265 88.6435 445.526
917.059 89.0018 441.444
869.973 31.1424 468.243
916.618 23.6496 468.261
857.207 14.089 470.951
821.894 14.8221 471.539
821.313 14.6148 473.14
870.749 -70.2294 599.083
914.989 87.1604 447.813
875.61 -72.8196 593.765
841.234 76.0357 467.703
905.878 39.7107 467.946
877.018 -28.4435 594.854
875.495 90.8813 431.315
828.856 54.605 468.148
921.042 14.4185 468.732
914.868 67.1152 467.315
861.991 35.3822 468.145
957.075 45.6976 428.386
873.233 72.5287 466.25
910.542 99.3257 422.279
862.659 13.7821 471.594
877.713 -39.3892 593.493
834.162 52.1375 468.424
881.283 -19.386 592.384
881.377 -13.7536 593.121
919.858 96.4309 423.624
942.627 11.1708 457.088
854.792 81.9207 474.333
883.932 -70.3819 592.166
915.325 52.6042 467.23
911.625 82.8057 460.708
947.713 11.0908 446.116
872.245 84.3949 450.244
839.283 58.6213 467.963
873.235 -71.6309 593.677
879.86 73.8989 464.909
879.775 -18.1866 593.218
952.875 96.7065 424.021
949.363 98.5828 422.514
886.221 91.997 433.417
857.622 77.9922 467.68
957.192 93.8134 424.05
900.269 89.6674 438.501
879.601 -20.3836 592.174
926.961 68.7232 465.992
877.225 -27.3949 597.671
885.325 22.9525 468.109
889.872 80.0497 462.902
876.721 -30.4317 599.751
878.478 -21.4644 593.075
879.265 -19.0175 593.768
876.373 -32.8383 598.289
947.693 11.4055 443.319
859.969 59.9744 467.304
874.876 17.1482 468.195
869.21 -63.1028 596.844
896.873 96.9433 421.643
878.401 -20.9151 599.14
853.322 22.868 468.434
891.773 44.8138 467.853
876.974 -28.8503 594.898
877.133 -27.3839 594.775
879.095 -21.3185 592.207
930.79 90.0762 437.903
897.297 89.6468 440
830.294 33.7805 468.287
837.706 39.5986 468.396
877.879 -23.1888 599.478
877.409 -25.8633 597.796
863.882 62.3795 467.53
829.828 35.7809 468.198
875.984 -70.9043 592.522
880.065 -70.5389 592.464
867.396 51.8795 468.3
896.094 65.8321 467.052
922.339 77.5329 465.994
873.204 -45.5712 593.914
919.734 68.2452 466.832
875.795 -35.6545 594.397
873.595 -47.9139 593.043
875.511 -37.6526 594.355
872.379 -47.138 598.895
875.143 -51.844 597.806
874.47 -43.1796 592.973
